ply
format ascii 1.0
comment PCL generated
element vertex 566
property float x
property float y
property float z
property uchar red
property uchar green
property uchar blue
property float nx
property float ny
property float nz
property float curvature
element camera 0
property float view_px
property float view_py
property float view_pz
property float x_axisx
property float x_axisy
property float x_axisz
property float y_axisx
property float y_axisy
property float y_axisz
property float z_axisx
property float z_axisy
property float z_axisz
property float focal
property float scalex
property float scaley
property float centerx
property float centery
property int viewportx
property int viewporty
property float k1
property float k2
end_header
-0.06158838 0.13524786 -0.032056071 33 45 83 -0.81783253 -0.0071373885 -0.57541203 0
-0.058069322 0.13363317 -0.03735017 26 41 91 -0.84187496 -0.015721571 -0.53944361 0
0.1784233 0.13346449 -0.037078105 13 27 3 0.61613554 -0.035334066 -0.78684717 0
0.18176928 0.13120097 -0.03429836 11 25 0 0.6037547 -0.066388257 -0.79440093 0
-0.0606043 0.14388216 -0.03376516 23 37 86 -0.86435866 -0.048061103 -0.50057405 0
-0.058328435 0.14244366 -0.037546001 24 39 89 -0.8653788 -0.052628651 -0.49834707 0
0.18684699 0.14517857 -0.031997561 12 26 1 0.54921985 -0.10499778 -0.82905555 0
-0.062899977 0.1541951 -0.030994967 24 27 42 -0.83344817 -0.079311527 -0.54687643 0
-0.059258915 0.15801999 -0.037815101 21 35 82 -0.84622008 -0.090048634 -0.52516925 0
0.17955656 0.15007682 -0.037346132 16 30 5 0.58573645 -0.035392784 -0.80972844 0
0.18402287 0.15404415 -0.034405645 13 27 2 0.57188642 -0.03680636 -0.8195067 0
-0.062793136 0.16690424 -0.033631831 44 47 51 -0.8414768 -0.013568345 -0.54012299 0
-0.059300251 0.16362254 -0.038571119 18 33 72 -0.82479894 -0.02567476 -0.56484288 0
0.17868029 0.16063739 -0.038550794 15 29 4 0.58401495 -0.057866629 -0.80967772 0
0.18468507 0.1670673 -0.034283232 17 31 6 0.59834039 0.065021709 -0.79859936 0
-0.063239798 0.17539458 -0.033548709 24 20 11 -0.87484115 -0.087724671 -0.47640038 0
-0.059451777 0.17586282 -0.039757755 44 40 31 -0.75564611 -0.28951216 -0.58752173 0
0.1794519 0.17557082 -0.038301904 5 11 0 0.65905643 0.058663771 -0.74980217 0
0.18256849 0.17637876 -0.035557617 13 19 4 0.65196425 0.021917764 -0.75793278 0
-0.062917911 0.18413384 -0.03433248 78 41 9 -0.80366844 0.14556536 -0.57699895 0
-0.059235226 0.18263337 -0.039096124 238 128 29 -0.78442663 0.21978912 -0.57997215 0
0.17522025 0.1854168 -0.03803901 97 81 55 0.53218496 0.46776024 -0.70567673 0
0.18391733 0.18381211 -0.031992953 64 55 34 0.57270038 0.45907888 -0.67916185 0
-0.062831573 0.19518155 -0.033466902 137 66 11 -0.7949121 0.017388474 -0.60647535 0
0.17267054 0.19442992 -0.037460186 140 115 81 0.65460849 0.1496211 -0.74101371 0
0.1800693 0.19508126 -0.03118236 143 117 84 0.59172636 0.078234665 -0.80233365 0
-0.063197553 0.20511073 -0.03369303 203 104 23 -0.78227788 -0.019858913 -0.62261289 0
-0.05850279 0.20402139 -0.038938329 233 115 18 -0.76799041 -0.014919768 -0.64028758 0
0.17348377 0.20398414 -0.03600958 142 116 83 0.6407392 0.019904865 -0.76750064 0
-0.063437484 0.21540259 -0.033207137 173 91 27 -0.81282628 0.012657239 -0.58236867 0
0.16923176 0.21425149 -0.039560884 141 115 82 0.64826149 -0.022750208 -0.76107788 0
0.17526649 0.2173897 -0.035049658 142 116 83 0.57123953 -0.083159223 -0.81655979 0
0.18096137 0.21765125 -0.031165909 143 117 83 0.53173018 -0.11374523 -0.83924073 0
-0.06406495 0.22757791 -0.032779843 129 73 19 -0.87355411 -0.06107045 -0.48288053 0
-0.059311591 0.22266562 -0.038993634 236 115 21 -0.77811939 -0.072762705 -0.62388766 0
0.174421 0.2265377 -0.036778357 139 113 79 0.55345726 -0.11743955 -0.82455623 0
-0.062994488 0.23615062 -0.03497 199 109 30 -0.9021129 0.030753886 -0.4304027 0
0.17657849 0.23804733 -0.037125289 138 110 77 0.56800187 -0.064554572 -0.82049167 0
0.18479407 0.2331502 -0.031406946 137 111 76 0.49265093 -0.14263269 -0.85845852 0
-0.061729923 0.2445686 -0.034867693 161 109 56 -0.85969144 0.38730565 -0.33305392 0
-0.057656102 0.24706139 -0.038680132 76 54 30 -0.59716564 0.70229793 -0.38751885 0
0.036517374 0.24968322 -0.034582309 5 5 3 -0.25910014 0.94058329 -0.21947721 0
0.043521915 0.24946584 -0.039035592 16 17 11 -0.026034379 0.98153192 -0.18951833 0
0.17788202 0.24832521 -0.034931667 90 70 44 0.41329077 0.66309428 -0.62409669 0
0.18272722 0.24583277 -0.032193091 118 94 63 0.51818055 0.38709536 -0.76265728 0
-0.054452799 0.25350752 -0.035586234 51 59 64 -0.49234313 0.79222429 -0.36052603 0
-0.045609158 0.25578547 -0.035126284 41 87 172 -0.11978216 0.98586535 -0.11713988 0
-0.03346147 0.25641298 -0.035217989 43 81 164 -0.007193103 0.99168557 -0.12848371 0
-0.021597516 0.25634119 -0.038283814 55 86 161 -0.0074312887 0.99849874 -0.054269183 0
-0.012500579 0.25647467 -0.037205853 51 81 153 -0.0079763234 0.99897712 -0.044509936 0
-0.0061929706 0.25654653 -0.034833319 53 82 150 0.035536341 0.99908376 -0.023848504 0
0.0051051583 0.256356 -0.035181362 49 75 142 0.031856224 0.99593449 -0.084258981 0
0.014336056 0.25658578 -0.033144489 52 77 143 0.0030543513 0.99656481 -0.08276014 0
0.025649175 0.25467011 -0.034645509 45 62 96 0.31473073 0.92706418 0.20370713 0
0.034427393 0.25159922 -0.03309948 9 9 6 0.20435803 0.97865361 0.02179146 0
0.045269355 0.25261515 -0.033648256 38 38 29 -0.13678001 0.8322643 -0.53724056 0
0.055743411 0.25194791 -0.035722815 27 28 22 -0.040068544 0.99253458 -0.1151939 0
0.064105906 0.25238699 -0.035368152 102 102 92 -0.18803157 0.96545631 0.18038368 0
0.074762523 0.25407434 -0.032726035 165 162 148 -0.17696378 0.97437048 0.13887425 0
0.084488511 0.25564617 -0.035632141 240 237 220 0.023078393 0.98613733 -0.16431831 0
0.094391704 0.25453988 -0.039018005 238 234 217 0.051075581 0.97323775 -0.22405238 0
0.10318438 0.25441962 -0.037153609 238 235 218 -0.0023442858 0.99075848 -0.13561773 0
0.11526903 0.2544111 -0.035334166 233 234 216 0.050056592 0.99868673 0.010910076 0
0.12762909 0.25287849 -0.033281796 169 172 162 0.1305335 0.98661447 0.097738855 0
0.13422805 0.25263932 -0.034858242 72 75 68 -0.021218631 0.99919361 -0.034088962 0
0.14428872 0.2535553 -0.034714881 80 59 33 -0.22804889 0.96138161 -0.15407492 0
0.15523605 0.25616854 -0.036693543 231 141 63 -0.16987494 0.97512215 -0.1424049 0
0.16711144 0.25531283 -0.03457791 117 74 36 0.42430013 0.73120636 -0.53414112 0
0.17268659 0.25309286 -0.033348076 39 23 13 0.42757705 0.65793574 -0.61991799 0
0.18190947 0.25018239 -0.030076977 13 2 0 0.32939908 0.73494428 -0.59275055 0
0.33249944 0.0099602509 -0.027273281 84 53 24 0.07782501 0.99696666 0.00090951595 0
0.34495008 0.0094531411 -0.025750548 120 80 39 0.017014712 0.99977338 0.012794006 0
0.3538315 0.0093822191 -0.024406312 132 88 44 0.00086752337 0.9999423 0.010707133 0
0.36539963 0.0094001573 -0.023304509 133 87 42 0.0054721758 0.99998027 0.0031060441 0
0.37804142 0.0094061652 -0.026847074 135 88 41 -0.025727727 0.99917072 0.031559348 0
0.3848286 0.009155632 -0.026319314 128 82 40 0.047688764 0.99864596 -0.020785287 0
0.39564815 0.0090217488 -0.024339389 146 95 46 -0.0024486773 0.99976641 -0.02147389 0
0.40442583 0.0089545436 -0.024303623 143 92 44 0.02583706 0.99962997 0.0085043982 0
-0.41210523 0.015863389 -0.027664043 194 124 65 -0.009706975 0.99968266 -0.02324562 0
-0.40467882 0.015983652 -0.023623414 206 139 77 0.016610641 0.99985445 -0.0039084051 0
-0.39965877 0.015912546 -0.025671648 190 126 64 0.033066798 0.99810529 -0.051889148 0
-0.38538113 0.015840726 -0.024372868 203 136 70 0.0023484624 0.99996299 0.00827171 0
-0.37229574 0.015393185 -0.022818385 187 126 66 0.024587777 0.99969751 0.00058717804 0
-0.36180636 0.015382801 -0.026366258 183 119 59 0.0028045161 0.99972534 0.02326544 0
-0.35538912 0.015195297 -0.025251389 150 96 48 0.023714373 0.9997164 -0.0021786164 0
-0.34702864 0.014863977 -0.026157394 172 113 60 0.043066461 0.99891329 0.017817892 0
-0.33650154 0.014877926 -0.025207067 164 106 56 -0.056579053 0.99839723 -0.0013327218 0
-0.32630575 0.015111537 -0.026780633 178 118 67 -0.01857155 0.99982619 -0.001625144 0
-0.31525791 0.01480334 -0.02341985 164 109 57 0.071453243 0.99682498 0.035134554 0
-0.30450815 0.014567855 -0.024042681 155 100 48 -0.0026177426 0.99839389 -0.056593604 0
-0.29369488 0.014872622 -0.025512135 167 104 51 -0.045168296 0.99870759 -0.0232984 0
-0.2843419 0.014637858 -0.023734018 176 113 57 0.047976717 0.99884826 0.00059607014 0
-0.27527517 0.014293635 -0.02514264 165 105 53 0.023139361 0.99953288 -0.019964507 0
-0.26438746 0.014403125 -0.025602832 150 94 45 -0.032532863 0.99938601 -0.013008604 0
-0.25406983 0.014320557 -0.026160607 132 82 41 -0.016926806 0.99268335 -0.11955401 0
-0.24304703 0.014479595 -0.025839308 156 100 49 0.03552245 0.9987269 -0.035813741 0
-0.23665719 0.014227649 -0.024410594 185 120 59 0.053272851 0.99856508 0.0054519712 0
-0.22477658 0.013864607 -0.025339017 196 133 71 0.0315171 0.99936992 0.016324177 0
-0.21642436 0.013746011 -0.023591017 191 128 68 -0.020031711 0.99979758 0.0018933354 0
-0.20560884 0.013506693 -0.02798822 180 119 60 0.033029739 0.99704462 -0.069362663 0
-0.19635291 0.013638039 -0.026676798 183 119 58 0.0082045803 0.99826097 -0.058375586 0
-0.18600418 0.013781187 -0.024472369 166 107 51 0.014448571 0.99955553 -0.026077511 0
-0.17501065 0.013501875 -0.025860149 131 80 36 0.013312629 0.99945706 0.030139634 0
-0.16527262 0.013467084 -0.026005954 144 90 39 0.014279127 0.99965507 0.022042209 0
-0.15518169 0.013328818 -0.024457905 158 101 48 -0.010947796 0.99976736 -0.018583171 0
-0.14523417 0.013285187 -0.023565389 161 101 46 0.034316238 0.99940825 0.0023636918 0
-0.13694359 0.012674122 -0.026035255 145 91 38 0.048369467 0.99851906 0.024902979 0
-0.12547307 0.012909947 -0.025430277 128 76 23 -0.019350691 0.99977565 -0.0086139794 0
-0.11515905 0.013144866 -0.025846159 140 88 34 3.6770957e-06 0.99948055 -0.032228321 0
-0.10545088 0.013105009 -0.021928798 153 97 41 0.028638927 0.99728745 -0.067805931 0
-0.096534133 0.012754264 -0.025161942 154 96 36 -0.021871343 0.99965709 -0.014402424 0
-0.083559506 0.012483645 -0.024754653 153 95 34 0.047426116 0.9988724 0.0021600127 0
-0.073604114 0.012775733 -0.024739264 135 83 27 -0.1107728 0.99325818 -0.034169111 0
-0.065671563 0.015730603 -0.025347412 90 42 11 -0.70691198 0.52063757 -0.47876093 0
0.20722537 0.016408373 -0.02763943 43 20 4 0.35186684 0.67766911 -0.64572001 0
0.21471944 0.015349569 -0.025133532 37 17 0 0.42392081 0.71563917 -0.55511409 0
0.22640367 0.012054968 -0.023873068 59 31 4 0.14318497 0.98962134 0.012149088 0
0.2339121 0.01138029 -0.023706397 76 46 12 0.020193394 0.99900222 0.039834011 0
0.24598908 0.011184279 -0.025576355 78 44 10 0.04946544 0.99802822 -0.038638107 0
0.25226685 0.010969616 -0.024852185 85 50 17 0.019658497 0.99546963 -0.093026161 0
0.26600954 0.011537264 -0.023392295 88 54 18 -0.049044672 0.99082547 -0.12593487 0
0.27376306 0.011904221 -0.021353293 100 62 25 0.046959002 0.99430364 -0.095682755 0
0.28584316 0.010667375 -0.024691349 103 65 27 0.073620185 0.99262506 -0.096310303 0
0.29651049 0.010359886 -0.024021141 109 70 33 0.018662285 0.99681425 -0.077544451 0
0.30541721 0.010220153 -0.026831342 104 67 29 -0.020884186 0.99961263 -0.01839691 0
0.31312564 0.010321606 -0.027901139 111 73 35 -0.023875434 0.99805075 0.057659693 0
0.32251519 0.010401629 -0.024772035 86 55 23 0.010407841 0.99988633 0.010906518 0
0.33085456 0.01008337 -0.02368092 86 54 21 0.066797704 0.9977417 -0.0070446939 0
-0.06295459 0.023991641 -0.026297119 143 47 12 -0.74906731 0.044796366 -0.66097766 0
0.19839212 0.021866728 -0.029981276 21 6 3 0.59300709 0.28187308 -0.75424814 0
0.20331618 0.024192007 -0.02622408 12 9 1 0.51886147 0.22469881 -0.82479888 0
0.21057998 0.025980877 -0.020947782 11 6 0 0.61285561 0.22234623 -0.75826794 0
-0.065690182 0.035701107 -0.023014544 76 26 5 -0.81326336 -0.050749112 -0.5796786 0
0.19890127 0.03896277 -0.028032172 10 24 0 0.53756911 -0.040923622 -0.84222609 0
0.20724945 0.036496665 -0.021863824 13 27 2 0.64350879 0.015792597 -0.76527578 0
-0.064599358 0.044081073 -0.025124401 172 43 11 -0.72984135 -0.033093486 -0.68281513 0
-0.063715935 0.057574045 -0.026212066 124 38 18 -0.76119602 -0.04693301 -0.64682138 0
0.203991 0.055566005 -0.024915621 13 27 4 0.62594581 -0.028569607 -0.77934307 0
-0.063514769 0.060181197 -0.026564574 13 3 1 -0.75265378 -0.0915097 -0.6520263 0
0.20597301 0.067124806 -0.023393402 11 25 2 0.66512543 0.013669796 -0.74660647 0
-0.065569818 0.076828755 -0.025826609 68 18 3 -0.82964915 -0.053185035 -0.55574602 0
0.20369387 0.074621163 -0.025167827 11 25 0 0.63194913 0.048575182 -0.7734862 0
-0.06557449 0.085245132 -0.025572138 61 45 24 -0.8918981 0.086407095 -0.44390491 0
0.19838013 0.086160429 -0.028521206 13 27 2 0.58326632 0.17736602 -0.79268008 0
0.20485565 0.086137891 -0.023201415 10 25 0 0.66597974 0.092052147 -0.74026847 0
-0.06587702 0.096430674 -0.02517725 43 40 26 -0.84087038 -0.087824449 -0.53406352 0
0.19425596 0.099515103 -0.028481381 5 8 1 0.54888153 0.19140333 -0.8136915 0
0.20245826 0.096250445 -0.02353736 11 13 4 0.61972904 0.1197326 -0.77562881 0
-0.070555463 0.1046139 -0.020478278 5 3 0 -0.76831585 -0.042572223 -0.63865358 0
-0.066053629 0.1045649 -0.026773982 54 56 54 -0.8248657 -0.062804602 -0.56182933 0
0.19593343 0.10388789 -0.02631947 9 16 1 0.5599823 0.17860755 -0.80902362 0
0.20321381 0.10423371 -0.021503791 0 2 0 0.50868261 0.15040947 -0.84771401 0
-0.070837095 0.11865949 -0.020673497 5 1 0 -0.75458455 0.013849074 -0.6560567 0
-0.067394018 0.11382439 -0.025169395 22 25 42 -0.81141847 0.022427071 -0.58403516 0
0.19038191 0.1151907 -0.028066635 13 27 2 0.58768117 0.10526366 -0.80221599 0
0.20013539 0.11023432 -0.022394678 13 27 4 0.52554071 0.061484654 -0.84854382 0
-0.070697471 0.12447235 -0.02071505 4 0 0 -0.75981522 -0.0075742747 -0.65009493 0
-0.066029444 0.12599814 -0.026540345 28 33 46 -0.78986949 0.023620825 -0.61281985 0
0.19262981 0.12354922 -0.025935872 12 26 2 0.50851685 0.0018747357 -0.86104995 0
-0.066740453 0.13625956 -0.025183689 24 24 30 -0.78526443 0.046793938 -0.61738974 0
0.18952097 0.13541907 -0.028948339 11 25 0 0.55641496 -0.11332973 -0.82313961 0
0.19426307 0.13538325 -0.025830965 12 27 3 0.5501436 -0.094182931 -0.8297419 0
-0.070012696 0.14868836 -0.021511229 12 9 2 -0.71582329 -0.04380561 -0.69690615 0
-0.06706807 0.14490922 -0.0246439 20 19 23 -0.77227587 -0.052315895 -0.63312948 0
0.20274992 0.14562465 -0.021465063 12 26 2 0.58844793 -0.087212943 -0.80381775 0
-0.070714295 0.15418652 -0.020943619 13 10 3 -0.68744421 -0.0096821142 -0.72617269 0
-0.067815386 0.15625292 -0.024262333 9 8 3 -0.78960127 0.0020288555 -0.61361694 0
0.19348474 0.15241651 -0.028077547 11 25 0 0.51523286 -0.063253902 -0.8547129 0
0.20152009 0.1521126 -0.022927646 13 27 2 0.5857358 -0.041751485 -0.80942595 0
-0.071126342 0.16355085 -0.020335728 12 10 3 -0.76149446 -0.013406791 -0.64803272 0
-0.066072032 0.16713147 -0.02758201 12 7 2 -0.86999869 -0.012786766 -0.49288809 0
0.19781676 0.16328947 -0.025476906 14 28 3 0.55954009 0.022942027 -0.82848573 0
0.20272554 0.16446146 -0.021972584 18 32 7 0.59811777 0.05903431 -0.79923099 0
-0.071950272 0.17651887 -0.020855505 33 29 20 -0.76725966 -0.12701604 -0.62863308 0
-0.066664986 0.1744384 -0.027177911 15 14 1 -0.83509153 -0.097289063 -0.54143983 0
0.18914467 0.17955035 -0.029812794 9 15 5 0.66354978 -0.035302639 -0.74729878 0
0.19442996 0.17711817 -0.025543844 11 18 3 0.57316267 0.059269033 -0.81729543 0
0.20209983 0.17532361 -0.020975418 12 19 3 0.57933939 0.096460454 -0.80935854 0
-0.071996398 0.18678665 -0.021828398 40 27 17 -0.83505523 -0.022791812 -0.54969394 0
-0.068266191 0.18647349 -0.02631687 45 40 18 -0.72993004 -0.056998748 -0.6811412 0
0.18679559 0.18674299 -0.027804295 138 115 78 0.57255512 0.32224724 -0.75388151 0
0.19493547 0.18427442 -0.023765787 87 73 50 0.52774632 0.47340623 -0.70524496 0
0.20027126 0.18283525 -0.020715205 4 7 0 0.47270322 0.62004018 -0.62618041 0
-0.071588993 0.19450653 -0.022071442 77 54 36 -0.84289324 0.053176351 -0.53544676 0
-0.06762065 0.19399017 -0.027312806 23 15 4 -0.79673141 0.022093249 -0.60392952 0
0.18643783 0.19516242 -0.026682423 143 118 82 0.56827265 0.062614366 -0.82045454 0
0.19363655 0.19827534 -0.022012845 148 122 87 0.51817518 -0.018178292 -0.85508138 0
-0.071288325 0.20763697 -0.022386715 85 53 25 -0.77538568 -0.0035705096 -0.63147783 0
-0.067817539 0.20584278 -0.027139848 38 24 5 -0.82282734 0.023750622 -0.56779504 0
0.18412343 0.20231059 -0.027997684 143 117 83 0.54392672 -0.0033634845 -0.83912599 0
0.19186971 0.20484066 -0.023274623 145 119 84 0.49085867 -0.054253962 -0.86954832 0
-0.072800927 0.21572158 -0.020997338 91 55 25 -0.67234921 -0.010284231 -0.74016261 0
-0.068027034 0.21723036 -0.026332576 7 6 0 -0.7917031 0.017822072 -0.61064601 0
0.18368351 0.21404672 -0.029058386 142 116 82 0.50778621 -0.12148198 -0.85287476 0
0.19630578 0.2108541 -0.021560572 142 116 80 0.48028177 -0.12102284 -0.86872488 0
-0.071324781 0.22363208 -0.022118263 6 1 0 -0.66230541 -0.0013458552 -0.74923283 0
-0.067057349 0.22425027 -0.027566167 18 15 5 -0.84236741 -0.0088193798 -0.53883159 0
0.18762805 0.22207637 -0.028038798 138 112 77 0.49080631 -0.13456182 -0.86081493 0
0.19559339 0.22629905 -0.023887731 142 116 80 0.51666892 -0.11686886 -0.84817153 0
-0.071625926 0.23674691 -0.021981569 52 26 8 -0.69872773 0.009209617 -0.7153284 0
-0.067591116 0.23556903 -0.026627442 9 6 2 -0.78619432 0.034510661 -0.617015 0
0.1888836 0.23300852 -0.02898204 138 110 73 0.5573625 -0.062379912 -0.82792264 0
0.19542892 0.23435998 -0.024808493 143 117 82 0.54543346 -0.059377108 -0.83604831 0
0.20173307 0.23104239 -0.02038723 143 119 83 0.56326026 -0.062819771 -0.82388806 0
-0.071359016 0.24408294 -0.021530321 68 40 18 -0.58232927 0.21005079 -0.78534782 0
-0.066980541 0.24698779 -0.024376474 10 9 4 -0.71866012 0.46252781 -0.51922601 0
0.029531579 0.24901634 -0.024324752 12 13 10 0.397778 0.91346103 0.085800171 0
0.03208635 0.24946468 -0.025440091 22 23 16 -0.43049872 0.8771829 -0.21265242 0
0.18777353 0.24568811 -0.029007971 143 116 79 0.58269656 0.30234113 -0.75435704 0
0.19463201 0.246792 -0.024044909 124 100 66 0.47036156 0.50160265 -0.72605419 0
0.20093824 0.24584402 -0.020366605 146 117 83 0.55916691 0.30177227 -0.77218258 0
-0.062369667 0.25125089 -0.025061745 31 29 21 -0.47825801 0.86238092 -0.16603757 0
-0.054866809 0.25380805 -0.025201343 51 66 90 -0.24262196 0.94738805 0.20878355 0
-0.045483157 0.25548106 -0.023235766 53 86 148 -0.21653469 0.93745625 0.27255926 0
-0.034976382 0.25725144 -0.024865225 41 82 158 -0.04002272 0.99889922 -0.024463087 0
-0.026828691 0.25722957 -0.024707526 47 82 154 0.049973316 0.99663103 -0.065032437 0
-0.014769055 0.2568346 -0.024391636 55 85 153 0.016867306 0.99949193 -0.027046612 0
-0.0018958671 0.2567164 -0.026271826 47 75 140 -0.0064382413 0.99980831 -0.018492438 0
0.0067400038 0.25704426 -0.023444172 51 77 143 0.0034391987 0.99996924 0.0070484625 0
0.0162354 0.25576681 -0.023519272 55 79 130 0.34814954 0.91797221 0.19004962 0
0.02389456 0.25293893 -0.025599023 12 15 19 0.46572521 0.83577299 0.29083231 0
0.036527447 0.25365534 -0.025081055 60 57 45 -0.55838633 0.70717329 -0.43371725 0
0.043990586 0.25537303 -0.025328107 230 222 194 0.01590425 0.98215961 -0.1873752 0
0.054930549 0.2543121 -0.025201101 131 127 112 0.14223978 0.96393543 -0.22493599 0
0.063870735 0.25312284 -0.024332842 2 2 0 0.14486745 0.9680292 -0.20477529 0
0.075290449 0.25270513 -0.024549711 75 75 66 -0.18200357 0.96932054 0.16520429 0
0.08365079 0.25415567 -0.023079453 174 174 161 -0.15566301 0.95923299 0.23588368 0
0.095137015 0.25636888 -0.025555179 243 243 224 0.064294472 0.99222207 -0.106591 0
0.10846137 0.25513038 -0.024437202 237 238 220 0.15441166 0.9867124 -0.050554514 0
0.12424804 0.25290623 -0.024842368 112 119 109 0.081404008 0.99632883 0.026497558 0
0.13631387 0.25346428 -0.024898788 51 42 24 -0.20152804 0.96827954 -0.14771995 0
0.14500797 0.25500199 -0.028575707 110 69 38 -0.30362871 0.93022126 -0.2061507 0
0.15319431 0.25542849 -0.02294034 252 140 50 -0.10354485 0.99049848 0.090505458 0
0.16448219 0.2580564 -0.027308615 249 150 59 -0.0071441815 0.99579644 -0.09131521 0
0.17661083 0.25590613 -0.026462896 128 81 39 0.37494165 0.77813631 -0.50390738 0
0.18332452 0.25469658 -0.02361409 104 68 36 0.41057596 0.66823548 -0.62039399 0
0.19203112 0.25082827 -0.021900451 23 10 0 0.36849898 0.75626016 -0.54062849 0
0.3350496 0.0098940879 -0.014955869 129 84 42 0.045518044 0.99860841 -0.026633617 0
0.34703764 0.0094899656 -0.01467993 131 84 40 0.024599398 0.99922276 -0.030801987 0
0.35352087 0.0094091939 -0.015992742 139 91 48 0.0079551535 0.99987561 -0.013613517 0
0.36659312 0.0093488768 -0.013977796 141 90 43 0.010228135 0.99994081 0.0037234314 0
0.37481681 0.0094866185 -0.015010247 146 94 47 -0.048858684 0.99858731 -0.020885924 0
0.383692 0.009577509 -0.015303965 146 96 49 0.0037338091 0.99776626 -0.06669835 0
0.39611226 0.0094255181 -0.013919798 151 101 53 0.035220735 0.99808353 -0.050880045 0
0.40688375 0.008969184 -0.016581342 147 95 49 0.039899446 0.99859548 -0.034857344 0
0.41171286 0.0088817272 -0.01398693 142 91 44 0.037350863 0.9980948 -0.04910937 0
-0.40553996 0.015969852 -0.014335955 210 144 75 0.0051280446 0.99997872 0.0040329406 0
-0.39628199 0.015878731 -0.015595572 211 145 75 0.026738111 0.9990769 0.033621069 0
-0.38446733 0.015438966 -0.015457156 175 117 62 0.044997152 0.99741685 0.055990871 0
-0.37542978 0.014979169 -0.015198973 171 115 64 -0.014438352 0.99888021 0.045054894 0
-0.36521652 0.015409564 -0.016876757 171 110 55 -0.017787065 0.99977297 0.011734211 0
-0.35361922 0.015082709 -0.015713498 186 121 63 0.052243978 0.99849349 -0.016772602 0
-0.34391382 0.014775931 -0.014501493 178 117 62 0.019391552 0.99935675 -0.0301676 0
-0.33352613 0.014844112 -0.016761111 167 109 60 -0.026060095 0.99947512 0.019240106 0
-0.3266302 0.015257671 -0.019493477 141 84 39 0.029167924 0.99886614 0.037625577 0
-0.31572977 0.01489799 -0.015188529 181 120 61 -0.020759704 0.99825037 -0.055364553 0
-0.30492768 0.015127691 -0.013576422 173 109 53 0.0018810825 0.99970573 -0.024183372 0
-0.29586706 0.014869402 -0.014410802 172 111 58 0.028146688 0.99960339 -0.00091094436 0
-0.28311816 0.014682207 -0.01393304 167 109 59 0.030025767 0.99953544 -0.0052321223 0
-0.27352849 0.014335338 -0.014976392 162 105 54 0.0193951 0.99977225 0.0089012254 0
-0.26667839 0.014318821 -0.014286719 166 109 54 -0.010950796 0.99979562 0.016994808 0
-0.25640386 0.014387185 -0.010797935 169 108 51 -0.021401539 0.99963701 0.016364815 0
-0.24548869 0.014630223 -0.015201786 172 110 52 0.010794541 0.99962306 0.025241874 0
-0.2379427 0.01423589 -0.014644494 190 125 65 0.050836429 0.99852979 0.018810324 0
-0.22430357 0.013900628 -0.015438942 195 130 65 0.02245326 0.99974746 0.00095362432 0
-0.21508497 0.013892889 -0.015444703 174 112 54 -0.015069168 0.99985844 -0.007487678 0
-0.20498253 0.013923789 -0.015139096 171 113 58 0.025759628 0.99965137 0.005785909 0
-0.19629467 0.013878651 -0.014987801 162 105 52 0.0076424764 0.99909836 0.04176164 0
-0.18643765 0.013726695 -0.016124047 162 105 50 0.027108394 0.99954301 0.013375901 0
-0.17519109 0.013491347 -0.01454577 162 105 52 -0.003379941 0.99990135 -0.013637759 0
-0.1639403 0.013377007 -0.01850494 165 107 55 -0.0012197146 0.99970621 -0.024205998 0
-0.15448022 0.01367234 -0.015159738 155 100 50 -0.044159535 0.99769497 -0.051525064 0
-0.14612219 0.013479964 -0.015363819 144 90 39 0.082795732 0.9948715 -0.058099858 0
-0.13585135 0.012987711 -0.01487314 148 93 39 0.016364496 0.99836838 -0.054705828 0
-0.1250353 0.013166363 -0.014725414 153 99 42 -0.048002914 0.99846882 -0.027490629 0
-0.11404286 0.013478592 -0.016057184 147 91 34 0.0058566513 0.99992651 0.010612302 0
-0.10437622 0.013289148 -0.013907848 154 99 42 0.046115033 0.99876207 -0.018645495 0
-0.095962882 0.012919262 -0.014945366 141 87 31 0.045418892 0.99874514 -0.021102153 0
-0.084914595 0.012566452 -0.015544171 139 87 35 -0.0087374235 0.99986392 -0.013991421 0
-0.075136214 0.01374568 -0.015156684 89 51 14 -0.35703957 0.91095245 -0.20661181 0
-0.068096712 0.019410726 -0.019098965 14 5 0 -0.90405035 0.039607711 -0.42558691 0
0.21933863 0.016863702 -0.014898703 42 22 2 0.74673951 0.64872581 -0.14674807 0
0.22439861 0.012917285 -0.014746052 67 37 7 0.36090678 0.93248737 -0.014616846 0
0.23072237 0.011176697 -0.01673875 77 46 15 0.15166143 0.98834395 0.013232188 0
0.24885771 0.011613803 -0.012348015 82 47 15 -0.056409128 0.99837035 -0.0086473795 0
0.25387934 0.011564624 -0.017265622 85 51 16 -0.028663067 0.99816608 -0.053318135 0
0.26652721 0.012460541 -0.014008068 101 64 27 -0.043360505 0.99833357 -0.038078845 0
0.27570105 0.012074638 -0.014153786 110 72 35 0.12939881 0.9914878 -0.014420131 0
0.28175282 0.011362894 -0.015652418 109 70 34 0.042992674 0.99906504 0.0045501483 0
0.29443666 0.010780184 -0.013583163 99 62 24 0.033295531 0.99913651 0.024852697 0
0.30288526 0.010606843 -0.013394509 93 58 23 0.015980124 0.99987191 -0.00087242242 0
0.31463388 0.010468851 -0.014330638 91 56 22 -0.012599698 0.99976236 -0.017792543 0
0.32768917 0.01038363 -0.015291008 100 63 25 0.054085288 0.99845451 -0.012781763 0
-0.071600057 0.023953469 -0.012148432 20 8 0 -0.88648015 -0.019396666 -0.46235988 0
-0.067613065 0.02314873 -0.019987395 45 23 0 -0.84857035 0.0084822783 -0.52901465 0
0.2154706 0.024682997 -0.014732874 21 10 1 0.90006602 0.28361183 -0.33082554 0
-0.070256673 0.031589616 -0.016019566 16 5 1 -0.82819045 -0.075815864 -0.55529511 0
0.21331404 0.035111237 -0.015173669 11 9 2 0.90272766 0.078304335 -0.42302632 0
-0.072080299 0.049286749 -0.015307009 30 18 4 -0.81081092 -0.048567794 -0.58328974 0
0.21363264 0.048303764 -0.014582836 9 8 1 0.91969424 -0.030069906 -0.39148211 0
0.21268274 0.056785185 -0.01602154 19 15 1 0.88240814 0.0034605581 -0.47047204 0
-0.075582914 0.063112676 -0.012257715 44 43 57 -0.80252075 -0.10609072 -0.587116 0
-0.069691323 0.062501647 -0.019864269 13 4 0 -0.79183096 -0.064417727 -0.60733366 0
0.21489511 0.0633884 -0.012412697 8 9 1 0.91305238 0.036645498 -0.4061926 0
-0.073288344 0.078058735 -0.015731147 20 13 9 -0.72052461 0.057244334 -0.69106251 0
0.21229762 0.076351911 -0.016053075 8 14 1 0.84436721 0.065286338 -0.53177238 0
-0.074800245 0.086014636 -0.012715438 24 21 19 -0.73186421 0.16774325 -0.66048235 0
-0.069365382 0.080991633 -0.019565487 5 1 0 -0.81555843 0.09149038 -0.57139647 0
0.21137954 0.086102873 -0.016345171 9 11 2 0.83360004 0.083768927 -0.54597956 0
-0.074106604 0.095980205 -0.014434375 17 15 5 -0.70940709 -0.26230779 -0.65416831 0
0.20876937 0.092172049 -0.018825063 5 7 2 0.66605514 0.11169735 -0.73749191 0
0.21294789 0.092010908 -0.011928061 5 4 1 0.93554491 0.026913375 -0.35218096 0
-0.07575421 0.10236745 -0.013703329 117 60 11 -0.76655698 0.037346024 -0.64108944 0
0.20976259 0.10888404 -0.015880374 4 5 0 0.66471595 0.079751737 -0.7428273 0
0.21316326 0.10492732 -0.012052177 3 3 0 0.92385322 -0.035509743 -0.38109612 0
-0.074652284 0.11736518 -0.016303863 86 43 9 -0.76778525 -0.03470479 -0.63976669 0
0.20572641 0.1184025 -0.018180167 13 25 3 0.62094492 0.098057352 -0.77769673 0
0.21209541 0.11166116 -0.012911372 10 24 0 0.77530122 0.088105828 -0.6254161 0
-0.075173356 0.12495869 -0.015929352 114 56 8 -0.73093081 -0.015164208 -0.68228298 0
0.21264993 0.12844369 -0.010585539 13 27 2 0.87938422 0.009295485 -0.47602212 0
-0.07501366 0.13498604 -0.016228635 121 64 16 -0.73356545 -0.0019735931 -0.67961597 0
0.20794791 0.1340778 -0.015966102 11 25 2 0.6146735 -0.095072769 -0.78303111 0
0.21059901 0.13219191 -0.01391671 9 23 0 0.57235527 0.002353108 -0.82000244 0
-0.074639596 0.14314471 -0.01690918 94 47 8 -0.66954631 -0.033745375 -0.74200338 0
0.21074253 0.14542198 -0.013899497 10 23 0 0.84502858 -0.033530112 -0.53366894 0
-0.080736481 0.15454081 -0.011687839 224 114 24 -0.76339281 0.012141985 -0.64582038 0
-0.075805023 0.15525346 -0.016631994 113 59 13 -0.63187355 -0.0022133342 -0.77506834 0
0.20940101 0.15075999 -0.01626033 13 27 2 0.72997791 -0.02196575 -0.68311775 0
0.21174063 0.15327202 -0.01323179 6 13 0 0.92542672 0.0078546433 -0.37884521 0
-0.076151028 0.16474199 -0.015415018 114 67 25 -0.67189163 0.20542032 -0.71159267 0
0.20899589 0.16573454 -0.016408389 13 27 2 0.71766496 0.074086331 -0.6924364 0
0.21082288 0.16456464 -0.013787085 12 29 3 0.88470733 0.08911971 -0.45754835 0
-0.077400371 0.17676149 -0.01334919 27 24 11 -0.83266497 -0.086185805 -0.5470292 0
0.20630839 0.17495701 -0.017460573 11 18 2 0.69549209 0.086931147 -0.71325582 0
0.21059135 0.17419174 -0.011872717 7 9 0 0.93493867 0.025364757 -0.35390154 0
-0.080161065 0.18144673 -0.010246801 234 118 19 -0.82024032 0.16239062 -0.54848439 0
-0.075512841 0.18390386 -0.016300153 141 75 23 -0.83701777 0.062640943 -0.54357833 0
0.1984638 0.18855642 -0.019421138 140 116 80 0.57506609 0.1646148 -0.80137438 0
0.20631026 0.18516284 -0.015529743 92 77 52 0.50870031 0.25362241 -0.82273912 0
0.21171415 0.18601108 -0.011169234 54 46 31 0.78973889 -0.015580463 -0.61324519 0
-0.080534242 0.19730988 -0.010379051 230 113 20 -0.81085771 -0.088160425 -0.57856506 0
-0.074099645 0.19530909 -0.018633947 175 99 30 -0.77322608 -0.046533898 -0.63242078 0
0.19925085 0.19892806 -0.018741103 152 126 93 0.49604076 -0.025544919 -0.86792338 0
0.20755529 0.19289848 -0.013798329 143 117 83 0.49063328 -0.068677232 -0.86865544 0
0.21114464 0.19111423 -0.011418361 131 110 75 0.69817674 0.049568437 -0.71420747 0
-0.075554684 0.20557217 -0.017565941 175 86 20 -0.74965048 -0.015981205 -0.66164088 0
0.19982415 0.20239322 -0.018720405 149 125 91 0.47989652 -0.089483432 -0.87274975 0
0.20740999 0.20481816 -0.014185565 146 122 86 0.57652807 -0.057188615 -0.81507355 0
0.21054655 0.20208712 -0.011584221 26 16 4 0.80215347 -0.12808904 -0.58321786 0
-0.075872518 0.21402991 -0.017587828 236 121 30 -0.7673623 -0.030625956 -0.64048195 0
0.2049226 0.2153578 -0.016616972 148 123 88 0.58784544 -0.075759195 -0.80541801 0
0.21132338 0.21405303 -0.010745327 71 57 38 0.89049631 -0.054199312 -0.45175076 0
-0.076385163 0.22334021 -0.017205816 235 116 24 -0.73589629 -0.018260777 -0.67684799 0
0.20914848 0.22229487 -0.013937521 154 130 92 0.64097387 -0.090058289 -0.76226115 0
0.2112917 0.22234945 -0.011539878 93 77 46 0.92567492 0.045334615 -0.37559384 0
-0.080101311 0.2394657 -0.013598228 234 116 26 -0.76113218 -0.031934328 -0.64781028 0
-0.075492971 0.23410425 -0.018554237 237 119 28 -0.72530335 -0.0053669577 -0.68840855 0
0.20637214 0.23449579 -0.017399233 148 124 89 0.62835836 -0.037569601 -0.77701628 0
0.21129715 0.23402214 -0.011419619 110 89 64 0.91953915 -0.0347603 -0.391458 0
-0.081511557 0.24558315 -0.010851469 199 108 29 -0.84984064 0.14293185 -0.5072884 0
-0.076056883 0.24662478 -0.015494532 133 80 32 -0.5400067 0.6391477 -0.54761571 0
0.020621998 0.24985552 -0.011559894 25 24 22 -0.5506919 0.68375695 -0.47876394 0
0.2049112 0.24596862 -0.016584935 127 104 72 0.59691066 0.39762866 -0.69684225 0
0.21082295 0.24298485 -0.01199875 122 104 73 0.86903733 0.17801215 -0.46161219 0
-0.072212622 0.25219733 -0.012362307 44 49 55 -0.52357841 0.71966553 -0.45601231 0
-0.064842895 0.25345209 -0.014443279 33 50 80 -0.035114944 0.96986443 -0.24110165 0
-0.055060316 0.25296643 -0.014800012 11 11 9 0.055819586 0.98739272 -0.14812084 0
-0.044173945 0.25366351 -0.01581612 48 62 81 -0.29193521 0.90984875 0.29487142 0
-0.034571461 0.25559407 -0.013485342 56 82 129 -0.19842497 0.92164612 0.33346036 0
-0.023456106 0.25684786 -0.013796364 54 85 153 -0.081230588 0.99051589 0.11081427 0
-0.01526561 0.25704819 -0.015645327 58 87 153 0.030771371 0.99940139 -0.015812449 0
-0.0018649437 0.25682408 -0.014499514 55 83 149 0.037392486 0.99912679 0.018640812 0
0.0041332231 0.25662968 -0.013822617 55 82 145 0.067199878 0.99373639 0.089286916 0
0.015068644 0.25369358 -0.014878334 28 37 52 0.3949973 0.88035768 0.26257852 0
0.026190093 0.25263014 -0.014879045 31 31 24 -0.37256718 0.84423846 -0.3852987 0
0.032240495 0.2550182 -0.016866757 118 113 96 -0.42820174 0.83326852 -0.34972396 0
0.044284295 0.25633422 -0.015348651 231 225 204 0.030330161 0.9993968 0.016913459 0
0.05655393 0.25577867 -0.015483141 223 217 195 0.092056826 0.9872573 -0.12980258 0
0.064891823 0.25471571 -0.016851738 163 158 144 0.18643439 0.94990838 -0.25083122 0
0.074567609 0.25359806 -0.014134618 20 20 16 0.15818982 0.94840062 -0.27479488 0
0.086345337 0.25254926 -0.014796983 34 34 30 -0.080457397 0.98882467 0.12550804 0
0.094643876 0.25361574 -0.013349895 170 169 157 -0.19282241 0.95049471 0.24367878 0
0.10458436 0.25518602 -0.015030025 245 244 226 0.044735335 0.98051679 0.19127375 0
0.11506977 0.25322387 -0.014852478 161 161 148 0.17242365 0.97876942 0.11081678 0
0.12549001 0.25286734 -0.014862062 27 28 23 -0.16170308 0.98300731 -0.086883366 0
0.13369992 0.25469902 -0.015425333 136 86 38 -0.19334203 0.97151411 -0.13703756 0
0.14177591 0.25451791 -0.015489342 252 138 49 0.12834769 0.98928201 0.069627889 0
0.15502787 0.2550844 -0.01899318 252 140 48 -0.087126479 0.98920923 0.11778834 0
0.16684093 0.25648585 -0.014840022 252 141 48 -0.21804707 0.96391112 0.15274478 0
0.17472868 0.25826967 -0.017854856 252 143 50 -0.1209999 0.98896682 0.085461631 0
0.18638009 0.25761843 -0.016101545 205 129 54 0.30361274 0.87571537 -0.37542239 0
0.19319652 0.2552062 -0.016034458 112 73 35 0.43013781 0.65288138 -0.62347996 0
0.20438562 0.25191119 -0.011409997 25 16 5 0.46362785 0.69061035 -0.5550735 0
0.34764841 0.0098762969 -0.006529504 139 88 41 0.022926489 0.99801618 -0.058635112 0
0.35602817 0.0095307771 -0.0046474724 148 98 50 0.035156827 0.99889398 -0.031223388 0
0.36507338 0.0094436333 -0.0057478501 145 93 46 0.014797489 0.99964541 -0.022137407 0
0.37545973 0.009736646 -0.0047540055 141 89 42 -0.059100401 0.99767387 -0.033970945 0
0.38610283 0.0099310465 -0.0075062774 147 96 49 0.0063142297 0.99924785 -0.038259428 0
0.39560363 0.0098900339 -0.0038881428 141 92 43 0.051402085 0.99830121 -0.027431654 0
0.40455467 0.0093536302 -0.0049993349 139 90 42 0.048690867 0.99856508 -0.022293875 0
0.41250113 0.0090713287 -0.0024517176 139 89 43 0.03378142 0.9993521 -0.012420945 0
-0.40256521 0.015759397 -0.0039263889 182 122 65 0.039281432 0.99843204 0.039881092 0
-0.39423367 0.015309001 -0.0037324596 148 94 46 0.011708383 0.99967396 -0.022690771 0
-0.38564348 0.015448565 -0.0061461097 186 122 61 -0.0086486544 0.99958909 -0.027330087 0
-0.37319049 0.015289618 -0.0068342215 204 132 70 -0.009308218 0.9986136 -0.051809743 0
-0.36466587 0.015250552 -0.0052220505 178 116 60 -0.0026232672 0.99999595 0.0011116642 0
-0.35450727 0.015415404 -0.004462773 169 110 52 -0.0039356416 0.99977535 -0.020827865 0
-0.34398514 0.014967134 -0.0041721608 178 118 63 0.036670007 0.9992519 -0.012283846 0
-0.33328927 0.015103958 -0.0057022236 185 122 66 -0.026194898 0.99953473 -0.015630545 0
-0.32578844 0.015260971 -0.0055458755 181 117 64 -0.0068899058 0.9991399 -0.040888347 0
-0.31572014 0.015316915 -0.0045766798 171 112 61 0.0066945534 0.99953884 -0.029621417 0
-0.30511186 0.015189867 -0.0065246206 150 98 52 0.013200586 0.99991149 0.0016474229 0
-0.29623172 0.014786443 -0.00609791 144 90 42 0.060277805 0.99767125 0.031915676 0
-0.28536341 0.014470838 -0.004592678 156 100 53 0.0041770791 0.99950475 0.031189477 0
-0.27733734 0.014361781 -0.0060069789 167 107 55 0.032713268 0.99944317 -0.0065748105 0
-0.26514646 0.014260374 -0.0066262647 184 123 65 -0.0022305571 0.99995357 0.009376647 0
-0.25365102 0.014285167 -0.001995981 192 129 70 -0.00076412153 0.99990952 0.01342834 0
-0.24370533 0.01425603 -0.0037618766 186 121 60 0.0014809697 0.9999395 0.010901083 0
-0.23400979 0.014273132 -0.0068681552 188 122 61 0.0057163229 0.99993569 -0.0097941263 0
-0.22386485 0.01390219 -0.0059862426 193 132 69 0.013678425 0.99917829 -0.038152967 0
-0.21522768 0.01392429 -0.0044487133 130 82 36 0.013726003 0.99990469 -0.0015332091 0
-0.20482947 0.013852976 -0.0045196321 173 112 55 -0.01217874 0.99989587 -0.0077398513 0
-0.19507599 0.013830233 -0.005250514 169 111 55 -0.0018399458 0.99921036 -0.039689798 0
-0.18455236 0.013830501 -0.0044541941 157 103 53 0.0088507393 0.9986524 -0.051138215 0
-0.17465042 0.013601509 -0.0041286359 142 89 39 0.015076157 0.99963087 -0.022601087 0
-0.16539034 0.013753368 -0.007205789 147 94 44 -0.022517351 0.99939877 -0.02636726 0
-0.15494263 0.014208868 -0.0075313458 150 96 45 -0.027023649 0.99603152 -0.084799103 0
-0.14809424 0.014691685 -0.0018239811 168 111 56 0.10338879 0.99071121 -0.088329442 0
-0.13542208 0.013449362 -0.0047631199 170 113 52 0.040539905 0.99846458 -0.037747055 0
-0.12654929 0.013274704 -0.0060666492 155 101 41 -0.047272034 0.99854654 -0.025888795 0
-0.11645741 0.013267874 -0.0039770608 147 92 37 0.018285453 0.9997614 0.011949238 0
-0.10430982 0.013145091 -0.004384866 132 82 30 -0.0052399389 0.9999184 0.011645653 0
-0.093536854 0.013022248 -0.0044365134 131 79 23 0.0030406883 0.99971992 0.023473617 0
-0.084672697 0.012941729 -0.0054972614 120 70 19 0.020345554 0.99977094 -0.006650799 0
-0.077848054 0.015441741 -0.0034748367 56 37 28 -0.7046724 0.56594437 -0.42795315 0
0.21822058 0.017691754 -0.0034451603 43 22 2 0.80960399 0.52856171 0.25527221 0
0.2255381 0.012631005 -0.0048234737 66 36 5 0.39730406 0.91721851 0.029321326 0
0.23419748 0.010885164 -0.0032051874 75 43 9 0.046475034 0.99856514 -0.026604565 0
0.24418305 0.011047617 -0.0044569685 84 50 15 -0.030388033 0.99894011 0.034572665 0
0.25513956 0.011716778 -0.007687021 98 60 23 -0.058643918 0.99582148 0.07000348 0
0.26707768 0.012027808 -0.0012509131 100 65 29 -0.045655392 0.99595439 0.077397957 0
0.27530336 0.012048583 -0.0053448407 100 65 29 0.093168698 0.99463493 0.044955987 0
0.28503904 0.011000902 -0.0032396261 87 55 23 0.056855001 0.99837989 0.0022662438 0
0.29480883 0.010635842 -0.005056615 77 46 17 0.038247824 0.99924171 0.0072968118 0
0.30856755 0.010357905 -0.0033772686 101 63 26 0.018099576 0.99901158 0.040597994 0
0.31305552 0.010296688 -0.0029710354 100 64 27 0.015051354 0.9983508 0.055399679 0
0.32474497 0.010246558 -0.0027948755 108 70 31 0.011685606 0.99894291 0.044456981 0
0.33268231 0.010280064 -0.0057458133 147 96 50 -0.0038327388 0.99967343 -0.025264274 0
0.34552419 0.010191815 -0.0039953706 136 88 43 0.051458091 0.99186611 -0.11642053 0
0.3822808 0.010056107 -0.0047187181 143 91 44 -0.0025999504 0.99967527 -0.025349449 0
-0.075636074 0.022838179 -0.0049150661 48 51 81 -0.85991806 -0.050250746 -0.50795257 0
0.21569209 0.025505794 -0.0066734464 39 17 3 0.93464518 0.28155169 0.21717957 0
-0.075251028 0.03740944 -0.008091866 40 34 40 -0.88505101 -0.11506157 -0.45104939 0
0.21351209 0.034730174 -0.0047267149 77 27 0 0.89578933 0.026957372 0.44366065 0
-0.078665778 0.04369849 -0.0029204322 49 48 79 -0.87502885 -0.17638567 -0.45079112 0
0.21351714 0.044263709 -0.0047342395 73 26 0 0.90790635 -0.032524657 0.41790915 0
-0.078462347 0.0515128 -0.0058498383 50 53 85 -0.85608906 -0.10203097 -0.50665689 0
0.21477558 0.057299536 -0.0083073722 43 15 0 0.97323406 0.027930528 0.22811271 0
0.21300328 0.066690266 -0.003856045 82 30 1 0.90311635 0.0037376336 0.42937964 0
-0.084058292 0.07635998 -0.0030468325 47 51 83 -0.80212897 -0.035422605 -0.59609926 0
0.21369952 0.07517267 -0.0055214218 51 19 1 0.96076411 -0.0075414465 0.27726421 0
-0.082635649 0.086382389 -0.0036042018 52 54 66 -0.76300281 0.37334421 -0.52767491 0
-0.078457721 0.086411424 -0.0078926729 47 45 47 -0.69620192 0.38680404 -0.60471946 0
0.2140906 0.084571898 -0.0079588881 26 8 0 0.9940818 0.099478148 0.043651801 0
-0.082009412 0.096574917 -0.0055522257 36 33 17 -0.76069605 -0.2745153 -0.58820313 0
0.21269287 0.09643992 -0.0041024168 12 4 0 0.96454906 -0.018556572 0.26325059 0
-0.083279088 0.10363788 -0.0044428343 181 91 24 -0.78392154 0.068643078 -0.61705363 0
-0.079863757 0.10534823 -0.0091383811 236 121 25 -0.8289662 -0.0031962099 -0.55928957 0
0.21377632 0.10860621 -0.0049277563 29 5 0 0.94569427 -0.0059191543 0.32500374 0
-0.079504937 0.11357485 -0.0099425642 229 115 18 -0.79730272 -0.053788245 -0.60117823 0
0.21378596 0.11581026 -0.0053095333 20 8 1 0.9936384 0.009538318 0.11221297 0
-0.085024387 0.12602255 -0.0040826481 225 110 17 -0.79331744 -0.079067715 -0.60365194 0
0.21281768 0.12491592 -0.0031210352 20 1 0 0.95758301 0.040807672 0.28525344 0
-0.083125874 0.13569207 -0.0075007523 227 112 19 -0.75851518 -0.075384095 -0.64728045 0
0.21296662 0.1344668 -0.0053469324 23 10 1 0.99993974 0.0092853038 -0.005850058 0
0.21320522 0.14611334 -0.0031056115 28 3 2 0.97990382 -0.059439156 0.1904088 0
-0.086806364 0.15436041 -0.0045074341 219 110 22 -0.78293198 0.034045514 -0.62117505 0
0.21320002 0.15569629 -0.0046924492 15 4 0 0.99769557 0.05360746 0.041590452 0
-0.083466247 0.16705447 -0.0057433341 123 74 31 -0.74461383 0.37113363 -0.55480641 0
0.21196966 0.167395 -0.0036845978 9 0 0 0.97068924 0.14464499 0.19193812 0
-0.083075717 0.17520168 -0.0047261892 24 19 9 -0.79228085 -0.13664462 -0.59465897 0
-0.079826787 0.1741429 -0.0089068851 31 29 16 -0.82134521 -0.045746952 -0.56859416 0
0.21163075 0.17693098 -0.0044623571 0 0 0 0.96836048 -0.12473438 0.21614687 0
-0.084172338 0.18336481 -0.0044178083 91 43 8 -0.80011791 0.058367405 -0.59699637 0
0.21211089 0.18354051 -0.0022397561 5 2 0 0.94762594 -0.060995892 0.31350377 0
-0.083766125 0.19399171 -0.0054759788 233 116 22 -0.79617465 -0.083264105 -0.59931034 0
0.21263576 0.19322684 -0.006449468 16 12 5 0.99237877 0.053974845 -0.11077476 0
0.21219182 0.20532414 -0.0063077854 20 13 6 0.99955481 0.024563853 -0.016936911 0
-0.084411979 0.21501876 -0.0071447305 234 115 25 -0.77724767 -0.03700383 -0.62810576 0
0.2123646 0.21640322 -0.0048199603 10 7 0 0.99140698 0.035762005 0.12583029 0
-0.087910697 0.22521223 -0.0033500053 228 112 21 -0.78276074 -0.02526905 -0.6218096 0
0.21200264 0.22500306 -0.0041844072 8 5 4 0.9860419 0.039902639 0.16164519 0
-0.086965121 0.23575731 -0.0046924739 232 116 24 -0.78852189 -0.0093603283 -0.61493546 0
0.21248968 0.23561254 -0.0063956133 26 20 11 0.99564248 -0.0437526 -0.082350694 0
-0.090031505 0.24402146 -7.9602993e-05 231 114 21 -0.83443922 0.27178204 -0.47942236 0
-0.08409407 0.24741945 -0.0050304616 151 89 33 -0.58395386 0.66827011 -0.46088278 0
-0.078724258 0.24952179 -0.0084733553 38 29 11 -0.41574466 0.80976105 -0.41405725 0
0.21191807 0.24455614 -0.0064213602 22 18 10 0.98349553 0.15714766 -0.089672446 0
-0.081588171 0.25099179 -0.0025702538 44 40 28 -0.55621129 0.61819822 -0.55539173 0
-0.075998902 0.25333196 -0.0055556521 43 56 80 -0.50393325 0.74136573 -0.44320208 0
-0.064917766 0.25490957 -0.00512292 56 94 175 -0.017302541 0.99770051 -0.065530263 0
-0.053304166 0.25484514 -0.0056543518 33 53 94 0.034332972 0.98850608 -0.14723082 0
-0.045160893 0.25410327 -0.004457369 25 34 53 0.14694314 0.97522366 -0.16536783 0
-0.03451388 0.2528322 -0.0055416939 42 47 50 -0.074774101 0.97880787 0.19064118 0
-0.023834683 0.25468069 -0.0039216029 56 78 119 -0.28087333 0.89479375 0.34706548 0
-0.01354551 0.25670394 -0.0046116631 63 92 155 -0.11145231 0.99001592 0.086295411 0
-0.0058401874 0.25665784 -0.0039594448 58 87 150 0.10261279 0.99378216 0.043216463 0
0.0059208097 0.25424144 -0.0036081958 31 39 54 0.36149809 0.90109509 0.23947182 0
0.016088312 0.25375724 -0.0041360138 30 30 26 -0.21496846 0.95494515 -0.20461772 0
0.023436211 0.25557783 -0.0060578235 109 105 90 -0.28909874 0.91185892 -0.29143637 0
0.031730317 0.25613064 -0.0055340501 233 226 208 0.0069452995 0.99926984 0.037570782 0
0.043687087 0.25526974 -0.0050538601 228 223 204 0.022866657 0.98726279 0.15744609 0
0.052568093 0.25559843 -0.0050649731 227 221 202 -0.10125614 0.99089301 0.08875899 0
0.067997456 0.25684005 -0.0042222147 226 219 202 -0.0089308554 0.99291217 -0.1185141 0
0.076901332 0.25594637 -0.0048983619 197 192 171 0.14444809 0.93226397 -0.33169052 0
0.083896548 0.25484487 -0.0044244444 79 77 68 0.22083007 0.93455452 -0.27900153 0
0.095327929 0.25250402 -0.0050658733 16 16 12 0.054112542 0.99838597 0.017242175 0
0.10478882 0.25289783 -0.0051195351 105 104 93 -0.070107259 0.96026552 0.27013883 0
0.11423516 0.25267366 -0.0060777212 42 46 42 0.069947638 0.99522781 0.068037011 0
0.12624593 0.25458214 -0.0047893994 124 79 38 -0.24595727 0.94560796 -0.2129098 0
0.13543946 0.25485098 -0.0047604647 250 136 48 0.12601028 0.99196428 -0.011322513 0
0.14290552 0.25371876 -0.0060938359 252 135 45 0.084142536 0.99634582 0.014664563 0
0.15514503 0.25379363 -0.0028690372 247 135 44 -0.065449566 0.99742323 -0.029383497 0
0.16397066 0.25493383 -0.0056570084 246 138 45 -0.18554378 0.98263431 0.0018414479 0
0.17563251 0.25756249 -0.0052225711 250 141 48 -0.21592428 0.97481483 0.055793051 0
0.18716308 0.25977594 -0.0033977726 250 156 69 0.029653732 0.98911089 0.14415403 0
0.19801404 0.25880018 -0.0042486452 251 155 65 0.33936673 0.93650717 -0.088230669 0
0.20568354 0.25381887 -0.0047461567 85 57 29 0.68696934 0.72025621 -0.096458085 0
0.31442818 0.00986272 0.0038617265 100 62 26 -0.0070752893 0.99996692 0.0040226281 0
0.35869735 0.0096602049 0.0040038042 144 92 46 0.077214032 0.99648643 -0.032444715 0
0.36646312 0.0096065411 0.0047636237 144 92 42 0.0010778042 0.99983758 0.017993607 0
0.37516215 0.0097264107 0.0061477511 145 94 47 -0.055493891 0.99810547 0.026569478 0
0.39495355 0.0099913487 0.0025384685 145 94 47 0.036555909 0.99919951 -0.016247101 0
0.40511394 0.0095852641 0.0059444173 134 87 43 0.06646248 0.99693298 -0.04131991 0
-0.4101221 0.016116329 0.0066537075 175 115 61 0.12691873 0.99188739 -0.0071504726 0
-0.4067063 0.01571786 0.0018294514 174 113 60 0.056314278 0.99838871 0.006976448 0
-0.39449263 0.015563522 0.0050773984 196 129 67 -0.028978167 0.99947935 -0.014190066 0
-0.38383812 0.015682565 0.0050387988 188 121 60 0.020513561 0.99978149 0.0040289285 0
-0.37599692 0.015448723 0.0039420691 181 117 62 0.036722895 0.99929619 0.0076505379 0
-0.36482719 0.015406489 0.0046152757 152 98 54 -0.004088169 0.99987286 -0.015411136 0
-0.35488236 0.015303061 0.003699247 191 124 60 0.023884548 0.99907875 0.035652298 0
-0.3439568 0.01495014 0.0051049688 190 128 68 0.031873882 0.99900264 0.031267792 0
-0.33479646 0.014973197 0.0050626644 154 101 56 -0.031249754 0.99940813 0.014385233 0
-0.32220131 0.015270499 0.0056334799 156 100 50 0.014560237 0.99881762 0.046383627 0
-0.31601676 0.015317801 0.0055046068 146 92 47 -0.0011772071 0.9995591 0.029669518 0
-0.30406886 0.01496198 0.0060875812 151 95 44 0.080702797 0.99654478 -0.019636922 0
-0.29681584 0.014590641 0.0049097436 163 104 51 0.033749547 0.99886036 -0.033747971 0
-0.28512365 0.014548002 0.0050210105 178 116 61 -0.010523697 0.99974698 -0.019882645 0
-0.27279937 0.014411703 0.006247554 178 117 63 0.038559999 0.99858987 -0.036489487 0
-0.26254031 0.01433845 0.004533323 178 117 62 -0.035234876 0.99880511 -0.033864103 0
-0.25568193 0.01435848 0.0054365182 175 115 58 0.0015927666 0.99964982 -0.026413135 0
-0.24450874 0.014383315 0.0053266599 149 95 48 0.0031311836 0.99999338 -0.0018365426 0
-0.23845586 0.014429968 0.0057798871 156 100 54 -0.012183052 0.99959368 0.025767142 0
-0.22550161 0.014125515 0.0046153213 144 93 46 0.024372131 0.99957657 -0.015895978 0
-0.21641673 0.01402921 0.0031652593 151 94 41 0.010301109 0.9997887 -0.017787848 0
-0.20647334 0.013930417 0.0054843863 163 104 52 0.0022703905 0.99979717 -0.020014819 0
-0.19721982 0.014180234 0.0042000334 166 109 57 -0.048521087 0.99847728 -0.026246464 0
-0.18637244 0.014500727 0.0043051494 147 91 44 0.0068850433 0.99592108 -0.089965187 0
-0.17593822 0.014150541 0.0044172779 150 95 44 0.034165896 0.99906284 -0.026572486 0
-0.16539511 0.013982373 0.0051722052 166 111 60 -0.011460018 0.99968481 -0.022338003 0
-0.15517724 0.014455855 0.0045454842 165 112 59 -0.051475346 0.99713963 0.05534273 0
-0.14438681 0.014201506 0.0059230607 155 101 49 0.069438532 0.9960897 0.054623399 0
-0.13439351 0.013750742 0.0036326954 154 100 44 0.040931769 0.99872059 -0.029696187 0
-0.12552883 0.013448156 0.0059040487 135 85 32 0.057114687 0.9981277 0.021886135 0
-0.11687858 0.013270465 0.0047172094 123 74 29 0.0020577705 0.99988103 -0.015287391 0
-0.10639258 0.013162502 0.0038498119 131 78 25 -0.0042691957 0.99952215 -0.030616367 0
